-0.0094524	0.0105488	0.0164341	
-0.0090863	0.0101458	0.0183461	
-0.0074699	0.0115723	0.0197771	
-0.0073276	0.0107307	0.0214711	
-0.0062451	0.0112354	0.0233021	
-0.0055916	0.0112311	0.0259511	
-0.0085811	0.0089511	0.0227751	
-0.0058531	0.0098781	0.0281241	
-0.0059816	0.0088527	0.0306671	
-0.008341	0.0065028	0.0322241	
-0.0042469	0.0108179	0.0306311	
-0.003102	0.0118477	0.0329361	
-0.0030782	0.0103167	0.0353701	
-0.0019754	0.0134374	0.0350561	
-0.0030787	0.009152	0.0383561	
-0.004214	0.0078486	0.0409501	
-0.0068697	0.0037024	0.0404611	
-0.0016284	0.0162727	0.0345911	
-0.0008493	0.014334	0.0375751	
0.0002053	0.01621	0.0398081	
0.0017667	0.0174787	0.0425921	
0.0018585	0.0150122	0.0454281	
0.0046038	0.0188878	0.0443911	
-0.0004999	0.0124281	0.0397131	
-0.0036111	0.0131467	0.0301921	
-8.9e-06	0.0113474	0.0425171	
-0.0002498	0.0097996	0.0450881	
-0.0005696	0.008506	0.0485931	
-0.008555	0.015313	0.0149841	
-0.008019	0.018093	0.0155011	
-0.0070936	0.0187092	0.0174671	
-0.0065468	0.0177531	0.0198901	
-0.0051578	0.0193246	0.0209111	
-0.0053166	0.0084951	0.0353171	
-0.0072483	0.0064846	0.0356991	
-0.0076156	0.0043822	0.0379141	
-0.0083576	0.0007888	0.0370581	
-0.0091647	0.0157339	0.0132501	
-0.0094961	0.0169795	0.0118791	
-0.0090029	0.0192837	0.0114051	
-0.0032674	0.0155874	0.0303481	
-0.0086832	0.0083057	0.0248741	
-0.0104949	0.0075351	0.0230461	
-0.0121898	0.0049793	0.0236121	
-0.0116211	0.0034348	0.0265491	
-0.0092592	0.0074541	0.0271081	
-0.0096454	0.0060461	0.0295721	
-0.0072886	0.0090471	0.0264671	
-0.0117246	0.0002071	0.0264561	
-0.0066125	0.0080761	0.0328371	
-0.0025957	0.0064214	0.0502691	
-0.0043413	0.0036795	0.0487381	
-0.0042306	0.000358	0.0499981	
-0.0028201	-0.0003758	0.0539921	
-0.0038808	-0.0034517	0.0486241	
-0.005467	0.003898	0.0449871	
-0.0054268	0.017754	0.0231381	
-0.010317	0.0058529	0.0276021	
0.0072561	0.0187754	0.0469881	
0.0113429	0.0180894	0.0495371	
0.0064241	0.0177656	0.0521861	
0.0165379	0.0175958	0.0491991	
0.0186108	0.0169558	0.0540081	
-0.0033821	0.0076569	0.0439901	
-0.0125543	-0.0013923	0.0239091	
0.0074019	0.0192791	0.0426451	
0.0078076	0.019494	0.0386241	
0.0105126	0.0189948	0.0417231	
0.0142187	0.018337	0.0445571	
0.0104589	0.0194632	0.0356391	
0.0092187	0.0198152	0.0321701	
0.0130111	0.0182276	0.0306641	
0.0026776	0.0140614	0.0485861	
0.0024955	0.0114698	0.0502271	
0.0024727	0.010028	0.0533351	
0.0044886	0.0118353	0.0559791	
0.0056834	0.0120894	0.0589781	
0.005384	0.0151612	0.0552021	
0.0087111	0.0179036	0.0555591	
0.0112872	0.0175189	0.0595361	
0.001136	0.0082048	0.0558611	
0.0009129	0.0069784	0.0591601	
0.0034415	0.008199	0.0617841	
-0.0001928	0.0038851	0.0609731	
0.004323	0.0081863	0.0654021	
0.0074235	0.0140657	0.0620271	
0.0027532	0.005489	0.0677591	
0.0033746	0.0038602	0.0715541	
0.0049172	0.0036811	0.0765831	
0.0055941	-0.0015808	0.0786571	
0.0072555	0.0099865	0.0675051	
0.0086644	0.0134902	0.0663881	
0.0080908	0.0094118	0.0713871	
0.0057178	0.0069377	0.0740861	
0.0072012	0.0068339	0.0783331	
0.0107795	0.0095176	0.0796951	
0.0089252	0.0067122	0.0830171	
0.0107024	0.0066953	0.0888531	
0.0081541	0.0033617	0.0862261	
0.0135543	0.0131373	0.0807471	
0.0178787	0.0152716	0.0821571	
0.0152492	0.0134001	0.0850371	
0.0157089	0.0113282	0.0900751	
0.0207895	0.0135282	0.0947521	
0.0119917	0.0129193	0.0765571	
0.0130446	0.0156525	0.0732071	
0.0090181	-0.0064733	0.0771411	
0.019738	0.0070382	0.0988631	
0.0257825	0.0019881	0.0982741	
0.0325539	-0.0012835	0.0963901	
0.0395824	-0.0100557	0.0936751	
0.0333039	0.0061128	0.0962971	
0.040348	0.0092955	0.0953981	
0.0518114	0.0024244	0.104241	
0.0493889	0.0083769	0.0974561	
0.0071613	-0.0006028	0.0839551	
0.0089639	-0.0030343	0.0876681	
0.0109221	-0.0036114	0.0917971	
0.0117103	0.0008606	0.0956281	
0.0142267	-0.0051609	0.0954711	
0.0201364	-0.0072978	0.0985781	
0.0170853	-0.0095828	0.0941041	
0.0233137	-0.0126355	0.0950951	
0.0287749	-0.0136664	0.0868201	
0.011683	-0.0063395	0.0864011	
0.0153511	-0.0107672	0.0870851	
0.0194805	-0.0142111	0.0826431	
0.0125451	-0.0083501	0.0817911	
0.0311552	-0.0119542	0.0945271	
-0.0010662	0.0063447	0.0547631	
-0.0022344	0.0032563	0.0550641	
-0.0017146	0.0014536	0.0576041	
0.0149054	-0.0124167	0.0823721	
0.0165082	-0.0145859	0.0782681	
0.0419151	-0.0136216	0.0841531	
0.0510044	-0.0138735	0.0807641	
0.0621856	-0.0095863	0.0857991	
0.0606552	-0.009532	0.101104	
0.0470169	-0.0111973	0.0720771	
0.0533624	-0.0056466	0.0675891	
0.048656	-0.0046382	0.0496641	
0.0524295	-0.0029498	0.0581771	
0.0013509	0.0029947	0.0658571	
0.0023131	0.0024512	0.0688861	
0.0598205	-0.0004154	0.0708531	
0.0596216	0.0113202	0.0728451	
-0.0055201	0.005665	0.0427471	
0.001514	0.0187086	0.0390501	
0.0130791	0.017295	0.0267171	
-0.011916	0.0245815	-0.0771871	
0.0022257	-0.0264023	-0.0419113	
0.0010093	-0.0263859	-0.0410885	
0.0011352	-0.0263381	-0.0393455	
-0.000456	-0.0264409	-0.0405749	
0.0012279	-0.0264861	-0.0431794	
0.001367	-0.0268512	-0.0450312	
-0.0001189	-0.0267871	-0.0440802	
-0.0018873	-0.0269329	-0.0434093	
-0.0034564	-0.0274257	-0.0444558	
-0.0048643	-0.0275334	-0.0430838	
-0.0020051	-0.0265306	-0.0413345	
-0.0036119	-0.0265228	-0.0402034	
-0.0048898	-0.0263139	-0.0387201	
-0.0003784	-0.026499	-0.0387564	
-0.0061769	-0.0270795	-0.042057	
-0.007601	-0.0270908	-0.0426739	
-0.0070984	-0.0266602	-0.0408515	
-0.008252	-0.0259234	-0.0398452	
-0.0068124	-0.0261277	-0.0394107	
-0.0044212	-0.0267376	-0.0415047	
-0.0076471	-0.028151	-0.0438662	
-0.0081307	-0.0300104	-0.0454806	
-0.0068881	-0.0296506	-0.0447931	
-0.008702	-0.0272433	-0.0430037	
-0.0104816	-0.0262837	-0.0421293	
-0.010531	-0.0271489	-0.0435288	
-0.0112368	-0.0286599	-0.0449165	
-0.0137364	-0.0284186	-0.0441545	
-0.0100901	-0.0299629	-0.0459806	
-0.0152914	-0.0315473	-0.0456532	
-0.0211986	-0.030675	-0.0452301	
-0.0111372	-0.0297548	-0.0481957	
-0.0055612	-0.0301016	-0.0453355	
-0.0044495	-0.0306747	-0.0461764	
-0.002919	-0.0293226	-0.046202	
-0.0054957	-0.0319093	-0.0461842	
-0.0055731	-0.0341206	-0.0477982	
-0.0072348	-0.0329466	-0.0465394	
-0.0027488	-0.0312304	-0.0474857	
-0.0027295	-0.0333336	-0.0480837	
-0.000986	-0.0319688	-0.0483171	
-0.0029957	-0.0355039	-0.0488367	
-0.0116981	-0.0255176	-0.041227	
-0.0152042	-0.02536	-0.0410082	
-0.0183862	-0.0260057	-0.0408519	
-0.0126048	-0.0247395	-0.0396729	
-0.0148161	-0.0245416	-0.039342	
-0.0157045	-0.0237601	-0.0366121	
-0.0180268	-0.0232858	-0.0347141	
-0.0167187	-0.0250698	-0.0399583	
-0.0205999	-0.0238554	-0.0357408	
-0.0192605	-0.0288301	-0.0425559	
-0.0223058	-0.0294323	-0.0428081	
-0.0232654	-0.0282728	-0.0460638	
-0.0209926	-0.0271663	-0.0497614	
-0.0260301	-0.0258501	-0.0445902	
-0.0290113	-0.0222278	-0.0439654	
-0.0241524	-0.0269703	-0.041367	
-0.0278337	-0.023882	-0.0471717	
-0.0275982	-0.024832	-0.0514723	
-0.0175966	-0.0302471	-0.0447726	
-0.0017505	-0.0286713	-0.0463645	
-0.0001411	-0.0289873	-0.0470317	
-4.55e-05	-0.0305802	-0.0477171	
0.0014836	-0.0298908	-0.0480036	
0.0025618	-0.0285214	-0.0478172	
0.004278	-0.0274718	-0.0479498	
0.0026074	-0.0306422	-0.0486634	
0.0056565	-0.0288316	-0.0487776	
-0.005308	-0.028712	-0.0444236	
-0.0121236	-0.0278646	-0.0439077	
-0.0192412	-0.0301153	-0.0472437	
-0.0093149	-0.0253798	-0.0389313	
-0.01047	-0.0247161	-0.0377294	
-0.0090559	-0.0250136	-0.0371951	
-0.0074365	-0.0254328	-0.0365956	
-0.0084315	-0.0244835	-0.0355512	
-0.0094952	-0.0235104	-0.0347681	
-0.0121819	-0.0230844	-0.0354335	
-0.010831	-0.0217833	-0.0331025	
-0.0123272	-0.0202106	-0.0314775	
-0.0116988	-0.023914	-0.0367425	
-0.0133198	-0.0233864	-0.0363591	
-0.0138411	-0.0225835	-0.0349037	
-0.0161805	-0.0221905	-0.0334559	
-0.0182601	-0.0218817	-0.03251	
-0.0076353	-0.0242179	-0.0341009	
-0.0060582	-0.0249076	-0.0332791	
-0.0047024	-0.0254078	-0.0326293	
-0.0043885	-0.0248248	-0.0307413	
-0.0072689	-0.0236466	-0.0325112	
-0.008091	-0.0223154	-0.0318217	
-0.0067553	-0.0231191	-0.0309862	
-0.009494	-0.02156	-0.0321883	
-0.0105268	-0.0203462	-0.031375	
-0.0096132	-0.019261	-0.0299048	
-0.0115741	-0.0193058	-0.0304904	
-0.011054	-0.0182126	-0.0295557	
-0.0117014	-0.0170126	-0.0284106	
-0.0097614	-0.0258556	-0.0406372	
-0.0210045	-0.0255858	-0.0382345	
0.101597	0.0129784	-0.0871032	
0.0593269	0.0528644	-0.0191433	
0.056551	0.0529122	-0.0182656	
0.0577522	0.0500539	-0.0188482	
0.0564225	0.0474645	-0.0193358	
0.0537467	0.0473872	-0.0193137	
0.0523512	0.0496576	-0.0177393	
0.0502585	0.0512161	-0.0167068	
0.0471284	0.0515456	-0.0158786	
0.0375371	0.0234191	-0.0160149	
0.0344496	0.0206697	-0.0151775	
-0.0312297	0.0207553	-0.0457386	
0.0287884	0.0053836	-0.0975244	
0.0313583	0.0051739	-0.0981676	
-0.0484225	0.006727	-0.0712207	
-0.0482577	0.0094885	-0.0689075	
-0.0486589	0.009713	-0.072989	
-0.0486352	0.0136922	-0.0757772	
-0.0479781	0.010062	-0.0764968	
-0.0463367	0.0061944	-0.0799447	
0.0417553	0.0154648	-0.0960602	
-0.0107789	0.0245423	-0.0083736	
0.0151434	-0.0044903	-0.0934999	
0.0645952	0.025278	-0.0698362	
-0.0149837	0.0242615	-0.038871	
-0.0171931	0.024456	-0.0384522	
-0.018793	0.0238427	-0.0364794	
-0.0180098	0.0252658	-0.040437	
-0.0207527	0.0256377	-0.0413995	
-0.0170683	0.0255469	-0.0425148	
0.0439628	0.0167201	-0.0907849	
0.0453528	0.0166751	-0.0913601	
0.0025866	-0.0201293	0.0181131	
-0.0030165	-0.0090143	0.0335991	
-0.0045522	-0.0071847	0.0347481	
-0.0048074	-0.0062258	0.0382341	
-0.0019945	-0.0077498	0.0405281	
-0.0326335	-0.0047767	-0.0779052	
-0.0327353	-0.0063964	-0.0816295	
-0.0373187	-0.0069614	-0.0834648	
0.0047713	-0.0179162	-0.0759004	
0.0051688	-0.0157038	-0.0786914	
-0.0224516	0.0247399	-0.0762441	
-0.0207158	0.0248949	-0.0740744	
-0.0245183	0.0247604	-0.0757107	
-0.0183088	-0.0136152	-0.0256365	
0.0325863	0.01303	0.0946921	
-0.007505	0.0195864	0.0144601	
0.10656	-0.0057109	-0.0753377	
0.107191	-0.0064777	-0.0778756	
0.105961	-0.0039011	-0.0734622	
0.105337	-0.0019342	-0.0716987	
0.105068	-0.0011657	-0.068184	
0.106874	-0.0008674	-0.0743017	
0.105384	-0.0002692	-0.065095	
0.105489	0.0032886	-0.0637029	
0.105455	-0.0034869	-0.0656826	
0.105142	0.0006043	-0.0620096	
0.104687	0.0032856	-0.0608962	
0.101716	0.0046805	-0.0594854	
0.0997657	0.0025192	-0.0586208	
0.0970257	0.0033762	-0.0578022	
0.0950069	0.0014079	-0.0573386	
0.0954192	-0.001246	-0.0577451	
0.0974463	-0.003383	-0.0585901	
0.0927168	-0.0017216	-0.0563015	
0.0914406	-0.0055577	-0.0542174	
0.0917531	-0.0011553	-0.0523656	
0.0922486	0.001018	-0.0495652	
0.091882	-0.0003418	-0.0460245	
0.0917655	-0.0039641	-0.0454519	
0.0917985	-0.0070184	-0.0488844	
0.0933788	0.0034822	-0.0564095	
0.0918787	0.0046498	-0.0541419	
0.0915802	0.0071815	-0.0548205	
0.0919439	0.0020131	-0.0530952	
0.0930429	0.0082728	-0.0575809	
0.0962256	0.0072685	-0.0579669	
0.0987939	0.0083878	-0.0589332	
0.0888148	-0.0034374	-0.0426072	
0.0887782	-0.0008356	-0.0392357	
0.0880004	-0.0060576	-0.0398872	
0.0741251	0.0147365	-0.102711	
0.0738674	0.013785	-0.104396	
0.0759672	0.0138534	-0.102668	
0.0150992	-0.024332	-0.0151671	
0.020794	-0.0259495	-0.0148461	
0.0228239	-0.0294878	-0.018708	
-0.0128283	0.0259139	-0.0469266	
-0.0118037	0.0261337	-0.048186	
-0.0123209	0.0262356	-0.0497451	
-0.0142653	0.0265104	-0.0509337	
-0.0157249	0.0264081	-0.0526759	
-0.0143454	0.0259758	-0.0471126	
-0.0152126	0.0261882	-0.0488949	
-0.0172366	0.0260776	-0.0485976	
-0.0153117	0.0258543	-0.0459895	
-0.0176171	0.0260948	-0.0520448	
-0.0185663	0.026148	-0.0471824	
-0.0205496	0.0263915	-0.0471369	
-0.0220946	0.0261103	-0.0447408	
-0.0218533	0.0260527	-0.0493286	
-0.018273	0.0260161	-0.0453558	
-0.0198561	0.0261763	-0.0455415	
0.0913084	0.0061132	-0.052471	
0.0915909	0.0062905	-0.0498855	
0.0918645	0.0065889	-0.0472413	
0.0905324	0.0091805	-0.0456416	
0.0898118	0.0061268	-0.0445355	
0.0921354	0.003809	-0.0489292	
0.0890731	0.0034114	-0.0433018	
0.0882947	0.0021215	-0.0401224	
0.0892639	0.0049689	-0.0387094	
0.0921198	0.0052098	-0.0371888	
0.0925134	0.010476	-0.0366884	
0.0946174	0.0024769	-0.0362205	
0.0898434	0.0081753	-0.0374909	
0.095982	0.0105447	-0.0310277	
0.0875133	0.0085976	-0.042338	
0.0864992	0.0106061	-0.0412019	
0.086041	0.0145216	-0.0429498	
0.085561	0.0134748	-0.0393052	
0.0897563	0.0144828	-0.0370891	
0.0868944	0.0184097	-0.0435084	
0.08409	0.0207494	-0.0422219	
0.0834003	0.0201199	-0.0388822	
0.0867583	0.0181656	-0.0375566	
0.0895721	0.0159333	-0.0452149	
0.092776	-0.0004648	-0.0371916	
0.087604	0.0082736	-0.0399017	
0.0938433	0.0147509	-0.0352194	
0.0938334	0.0175121	-0.0295188	
0.0922101	0.0017851	-0.0472112	
0.0909776	0.002022	-0.0449143	
0.0201434	-0.0090026	-0.0102876	
0.0239784	-0.0091247	-0.0111982	
0.0221434	-0.0056776	-0.0096356	
0.0290293	-0.0097786	0.0024111	
0.0201541	-0.0030856	-0.0087624	
0.0170568	-0.0024833	-0.008764	
0.0152011	0.0002104	-0.0091941	
0.0172709	0.0027576	-0.0093748	
0.0160531	0.0058074	-0.0097153	
0.0177389	0.0090556	-0.0101641	
0.0211592	0.009123	-0.0106922	
0.0119157	-5.73e-05	-0.0092307	
0.0104335	-0.002754	-0.0095594	
0.0123023	-0.0055941	-0.009568	
0.0073576	-0.0024124	-0.0085946	
0.005819	0.0004378	-0.0071254	
0.0107695	0.0028871	-0.0095209	
0.0121021	0.0062475	-0.0101503	
0.0105585	0.0093281	-0.0105611	
0.0154838	-0.0052917	-0.0092277	
0.0206136	0.0028299	-0.0103326	
0.0216091	-0.0003428	-0.011011	
0.0227338	-0.0011015	-0.0140037	
0.0238533	-0.0042642	-0.0146614	
0.0068702	0.0032839	-0.0083952	
0.0220361	0.0053834	-0.0122146	
0.0241731	-0.0060554	-0.0172669	
0.0257189	-0.0089379	-0.0175237	
0.0269982	-0.0096323	-0.021287	
0.0265322	-0.010516	-0.0150159	
0.0283084	-0.0130572	-0.0153808	
0.028306	-0.0154971	-0.0129686	
0.0247034	-0.006694	-0.0206504	
0.0256502	-0.0156632	-0.0118679	
0.0273134	-0.0188243	-0.0126107	
0.0241557	-0.0225753	-0.0138146	
0.0222333	-0.0151144	-0.0115017	
0.0204542	-0.0174877	-0.0117927	
0.0173025	-0.0180518	-0.0119486	
0.0213853	-0.020277	-0.0129513	
0.005785	0.0060322	-0.0070332	
0.0298192	-0.0137002	-0.0177627	
0.0295509	-0.0125774	-0.020664	
0.0318637	-0.0122187	-0.0243618	
0.0347726	-0.0123132	-0.0258278	
0.0321388	-0.015362	-0.0178803	
0.0335924	-0.0180394	-0.0152504	
0.034677	-0.0156922	-0.0195256	
0.0376001	-0.0157696	-0.0203896	
0.0347971	-0.0146844	-0.022152	
0.0394974	-0.0176099	-0.0187512	
0.0384451	-0.0191413	-0.0163663	
0.0342401	-0.0218667	-0.0149729	
0.0304648	-0.0247766	-0.0155316	
0.0350236	-0.0262224	-0.0171547	
0.029597	-0.0100381	-0.0236072	
0.0307265	-0.0064404	-0.0248687	
0.035066	-0.0056053	-0.0265443	
0.0206671	-0.0231463	-0.0137684	
0.0179811	-0.024553	-0.0145544	
0.0171271	-0.0269833	-0.0181277	
0.023246	0.0051448	-0.015171	
0.0226984	0.0027629	-0.0168018	
0.0225571	-0.0003984	-0.0166768	
0.0393083	-0.0259546	-0.0180696	
0.0425209	-0.0302437	-0.0186262	
0.0396626	-0.0350483	-0.0189913	
0.0445786	-0.0342889	-0.0172024	
0.0364664	0.0249616	-0.070663	
0.035516	0.0244693	-0.0720064	
0.0346934	0.0248895	-0.0706071	
0.03454	0.0238519	-0.0733861	
0.0329999	0.0247463	-0.0705992	
-0.0122257	0.024881	-0.0731877	
-0.0144888	0.003588	-0.00974	
-0.014087	0.0039892	-0.0115516	
0.0092673	0.0387482	-0.0261071	
-0.0508214	-0.0199995	-0.0688556	
-0.0518417	-0.0244316	-0.0661517	
0.055765	0.0249598	-0.0634051	
0.0537711	0.0246212	-0.0638409	
0.0535724	0.0247699	-0.0617455	
0.0218553	0.0559706	-0.0168054	
0.0244052	0.0570471	-0.0172643	
0.0256329	0.0587522	-0.0157703	
0.0248853	0.0592129	-0.0129788	
0.0255403	0.0574928	-0.010761	
0.0289732	0.056162	-0.0100476	
0.0311012	0.0536562	-0.010381	
0.0338774	0.0510321	-0.0120836	
0.0257437	0.0552139	-0.0091006	
0.0313357	0.0588683	-0.0119632	
0.0253257	0.0523677	-0.0087406	
0.0271409	0.0504316	-0.009523	
0.0296615	0.0511735	-0.0102191	
0.0282629	0.0484503	-0.0112049	
0.0245068	0.0497859	-0.0088508	
0.0237643	0.0475913	-0.0094826	
0.0220149	0.0459268	-0.0097907	
0.0370559	0.0506621	-0.0136532	
0.028149	0.0594492	-0.0160819	
0.0293131	0.0602194	-0.0135976	
0.0235462	0.0543754	-0.0084617	
0.0209744	0.0541258	-0.0080628	
0.0224047	0.0581975	-0.0120776	
-0.0070875	-0.0036737	0.0381211	
-0.0056717	-0.0044195	0.0411341	
-0.0061047	-0.0017704	0.0435321	
0.0951722	0.0154067	-0.0973572	
0.0951927	0.017345	-0.0964416	
0.0933681	0.019683	-0.096438	
0.0072215	0.0174448	0.0068191	
0.0234389	0.0252966	-0.064684	
0.0209573	0.054334	-0.0172307	
0.0223703	0.0546121	-0.0178968	
0.0237517	0.0536287	-0.0191127	
0.0252038	0.0531568	-0.0200349	
0.0272067	0.0540513	-0.0203811	
0.0292675	0.0535404	-0.0216949	
0.0270345	0.0559199	-0.0192475	
0.0312954	0.0535639	-0.0227396	
0.0233132	0.0560232	-0.0175149	
0.0229225	0.0570885	-0.0163449	
0.0216527	0.0571697	-0.0152154	
0.0289683	0.0575778	-0.0190314	
0.0312175	0.057134	-0.0200672	
0.030908	0.0586468	-0.0186775	
0.029054	0.0588458	-0.0175945	
0.0242604	0.0578895	-0.0160983	
0.0255564	0.0578401	-0.0170652	
0.0259931	0.0568698	-0.018287	
0.0244889	0.0586959	-0.0147745	
0.0256312	0.0593469	-0.0142923	
0.0234778	0.0587642	-0.0136995	
0.023783	0.0585789	-0.0121718	
0.0220122	0.0582148	-0.0139602	
0.0209007	0.057968	-0.013039	
0.0212748	0.0575053	-0.0111606	
0.0197506	0.0574229	-0.0117623	
0.0183938	0.056682	-0.012779	
0.018606	0.0561179	-0.0145711	
0.0165731	0.0558105	-0.0126133	
0.0231654	0.0575824	-0.0109491	
0.0262039	0.0595132	-0.0128776	
0.0274608	0.0597816	-0.0141992	
0.0253862	0.0586531	-0.0117065	
0.0159207	0.0544665	-0.0139534	
0.0268137	0.0587241	-0.0166403	
0.0267163	0.0581172	-0.0109976	
0.028425	0.0577992	-0.0106737	
0.0269986	0.0566275	-0.0098914	
0.0304864	0.0571735	-0.0107693	
0.0323118	0.0567818	-0.0110347	
0.0340451	0.0590629	-0.0126005	
0.0276184	0.0550457	-0.0094836	
0.0295961	0.0545464	-0.0098679	
0.0338867	0.0608055	-0.015805	
0.0361682	0.0571828	-0.0121221	
0.0387486	0.0578766	-0.0133024	
0.0387805	0.0606018	-0.0160216	
0.0367323	0.0539135	-0.0122384	
0.0414741	0.0569351	-0.0137248	
0.029219	0.0590892	-0.0117901	
0.0442677	0.057632	-0.0146884	
0.0447483	0.0604189	-0.0174025	
0.047603	0.0600746	-0.018369	
0.031034	0.0554596	-0.010467	
0.0326064	0.0546195	-0.0108414	
0.0337947	0.0528471	-0.0113312	
0.0354835	0.0520865	-0.0122198	
0.0323157	0.05156	-0.0111578	
0.0323535	0.0498064	-0.0122149	
0.0317795	0.0479166	-0.0142906	
0.0322542	0.0462029	-0.0167757	
0.0337176	0.049155	-0.0136243	
0.0355411	0.0495111	-0.0139524	
0.0372105	0.0485301	-0.0159081	
0.0357233	0.046641	-0.0178394	
0.0389133	0.0476212	-0.0179533	
0.0417445	0.0475731	-0.018501	
0.0422104	0.0491504	-0.0169364	
0.0417969	0.0513618	-0.0150662	
0.0443269	0.0506177	-0.0157561	
0.0418006	0.0539493	-0.0137237	
0.0396882	0.0519199	-0.0137313	
0.0464614	0.0496556	-0.0168407	
0.0466007	0.0476599	-0.0187195	
0.044255	0.0467122	-0.019385	
0.0450898	0.0448128	-0.0203084	
0.0469278	0.0431467	-0.0202382	
0.0491716	0.0440139	-0.0207552	
0.0243496	0.0571566	-0.0104135	
0.0255915	0.0565881	-0.0097243	
0.0243184	0.0558644	-0.0092377	
0.0230143	0.0556822	-0.0090084	
0.0217579	0.0562246	-0.0097473	
0.0220946	0.0546938	-0.0085618	
0.0207293	0.055369	-0.0089498	
0.0193528	0.0557929	-0.0092939	
0.0177611	0.0558374	-0.0095743	
0.0167549	0.0546667	-0.0084782	
0.0191117	0.0565952	-0.0105545	
0.0223166	0.0532538	-0.0079262	
0.0212925	0.0519866	-0.0075185	
0.0218609	0.05	-0.0077762	
0.0201518	0.0492553	-0.0072474	
0.0196079	0.0472759	-0.007457	
0.0181919	0.0456573	-0.0072616	
0.0164241	0.0464627	-0.00628	
0.0183371	0.0499918	-0.0065066	
0.0176781	0.0438539	-0.0082065	
0.0162443	0.0560069	-0.0099275	
0.0178109	0.0519768	-0.0065026	
0.016064	0.0520239	-0.0061799	
0.0142084	0.052172	-0.0062988	
0.0186654	0.0533907	-0.0070954	
0.0124914	0.0526855	-0.0069339	
0.0106865	0.0527204	-0.0075847	
0.0088866	0.0515184	-0.0070984	
0.0066542	0.0509648	-0.0073465	
0.0122014	0.0534331	-0.0081042	
0.0130206	0.0544387	-0.0093771	
0.0135729	0.05065	-0.0056284	
0.0143159	0.0487242	-0.0052599	
0.012081	0.0496671	-0.0049539	
0.0102257	0.0496043	-0.0050339	
0.0162613	0.0486175	-0.0059136	
0.0205833	0.0556569	-0.0163204	
0.0087539	0.0488099	-0.0049289	
0.0070986	0.0491748	-0.0052759	
0.0151835	0.0557355	-0.0112355	
0.0141333	0.0549592	-0.0100612	
0.0167618	0.050257	-0.0059704	
0.0349434	0.0299728	-0.0449396	
0.0352606	0.0323742	-0.044388	
0.0360101	0.0351746	-0.0450732	
0.0329861	0.0317046	-0.0434848	
0.0312781	0.0334868	-0.0425903	
0.0381123	0.033532	-0.0460066	
0.0319527	0.0357361	-0.0430139	
0.0338843	0.0363767	-0.0442316	
0.032862	0.0382627	-0.0435924	
0.0321497	0.0410017	-0.0423133	
0.0324173	0.0443784	-0.0416108	
0.0339488	0.0403037	-0.0444482	
0.0357307	0.041258	-0.0465115	
0.038603	0.0436226	-0.045823	
0.0362506	0.0385957	-0.0477265	
0.0389063	0.0385596	-0.0498492	
0.0420869	0.0449269	-0.0456277	
0.0425591	0.0481588	-0.0438336	
0.0416812	0.0425299	-0.0477597	
0.0481979	0.0125799	-0.103058	
0.0475002	0.0102035	-0.103171	
-0.0138887	0.0214109	-0.0871085	
-0.0129906	0.0197136	-0.0877516	
-0.0120524	0.018197	-0.0876493	
-0.0112718	0.0164443	-0.0878787	
-0.0107561	0.0177167	-0.0863431	
-0.0103895	0.0145978	-0.0879957	
-0.0115553	0.013614	-0.0897756	
-0.0113419	0.0108375	-0.0905446	
-0.0089784	0.0137532	-0.0868793	
-0.0082252	0.0151486	-0.0849562	
-0.0121378	0.0156104	-0.0894299	
-0.0127717	0.0124178	-0.0914419	
-0.0113879	0.0080069	-0.091389	
-0.0095218	0.005746	-0.0902181	
-0.0069964	0.0046517	-0.0881835	
-0.0064666	0.0012883	-0.0881647	
-0.0083111	-0.0009571	-0.0898677	
-0.0079847	-0.0049602	-0.0893798	
-0.0143787	0.0126653	-0.0931052	
-0.0155377	0.0107604	-0.0947021	
-0.0143156	0.0084197	-0.0940817	
-0.0038703	0.0004209	-0.0861385	
-0.0150429	0.0063001	-0.0950968	
-0.0137606	0.0046197	-0.0941029	
-0.0139954	0.0024438	-0.094397	
-0.0134451	-8.96e-05	-0.0939915	
-0.0159545	0.0017033	-0.0960768	
-0.0171878	2.36e-05	-0.0971608	
-0.0140785	-0.0024503	-0.0944419	
-0.012801	-0.0054976	-0.0933628	
-0.012034	0.004448	-0.0925558	
-0.0106107	0.002526	-0.0915423	
-0.0110819	0.0001952	-0.0921426	
-0.0170296	0.0031549	-0.0970597	
-0.0135181	-0.0086871	-0.0934778	
-0.015839	-0.0101469	-0.095487	
-0.0183041	-0.0083588	-0.0978273	
-0.0168934	-0.0137284	-0.0958784	
-0.0197538	-0.0170406	-0.0977211	
-0.0214516	-0.0087093	-0.10065	
-0.023415	-0.0055905	-0.102661	
-0.0268894	-0.0063373	-0.105334	
-0.0223955	-0.0123269	-0.101091	
-0.0102391	-0.0019532	-0.0913982	
-0.0110978	-0.0041925	-0.0919149	
-0.0082167	0.0170446	-0.0835534	
-0.0085506	0.0118377	-0.0874047	
-0.0069694	0.0100345	-0.0864994	
-0.0070281	0.0075182	-0.0875094	
-0.0055181	0.0104174	-0.0846187	
-0.0034148	0.0087813	-0.0832965	
-0.0093219	0.0106124	-0.0886037	
-0.0081908	0.009242	-0.0880741	
-0.0136341	0.0189021	-0.0892329	
-0.0150293	0.0193899	-0.0906827	
-0.0140836	0.0177568	-0.0905461	
-0.0033627	-0.0025896	-0.0857078	
-0.0010571	-0.0036452	-0.0841027	
0.0018452	-0.0021712	-0.0844391	
-0.0050523	-0.0044675	-0.0870436	
-0.0128834	0.0215986	-0.0856564	
-0.0125017	0.022332	-0.0841991	
-0.0118911	-0.0108923	-0.0916555	
-0.0097101	-0.0099627	-0.0898455	
-0.0085571	-0.0117449	-0.0879847	
-0.0093592	-0.0143923	-0.0875558	
-0.0079938	-0.015339	-0.0854746	
-0.0062845	-0.0144017	-0.0839373	
-0.0085497	-0.0179954	-0.0844127	
-0.0114423	-0.015393	-0.0894944	
-0.0130986	-0.0145455	-0.0916876	
-0.0104611	-0.0196122	-0.0857926	
-0.0116418	-0.022133	-0.0851498	
-0.0120144	-0.0187027	-0.0881042	
-0.014209	-0.023759	-0.0861254	
-0.0158401	-0.0237647	-0.0883367	
-0.0191152	-0.0254777	-0.0887138	
-0.0148315	-0.0211273	-0.0901365	
-0.0144019	-0.0252374	-0.0836446	
-0.0079571	-0.0193153	-0.0823014	
-0.005998	-0.0182474	-0.0803239	
-0.006481	-0.0209013	-0.0787174	
-0.0066301	-0.0228435	-0.076657	
-0.0040135	-0.0163185	-0.0792783	
-0.0051225	-0.0119407	-0.0841995	
-0.0053868	-0.0094943	-0.0855768	
-0.0035584	-0.0122244	-0.0820358	
-0.001629	-0.0116458	-0.0803668	
-0.0153698	-0.0148985	-0.0937702	
-0.0111433	-0.0233176	-0.0827651	
-0.010539	-0.0243255	-0.0801972	
-0.0088422	-0.0216635	-0.0813081	
-0.0089006	-0.0073405	-0.0897034	
-0.0165399	-0.0203662	-0.0927075	
-0.0186751	-0.0199679	-0.0955125	
-0.0182107	-0.0226558	-0.0937128	
-0.019137	-0.0251008	-0.0920486	
-0.0050275	-0.0153221	-0.0815805	
-0.0207047	-0.0260149	-0.0944858	
-0.0217941	-0.0254563	-0.0975985	
-0.0228692	-0.023432	-0.0999986	
-0.0250581	-0.0212549	-0.102993	
-0.0284917	-0.019216	-0.105904	
-0.0249011	-0.0245175	-0.102195	
-0.0230838	-0.0286108	-0.0973727	
-0.0253881	-0.0301012	-0.0996271	
-0.031482	-0.0223185	-0.107192	
-0.0113609	0.0061365	-0.0918082	
-0.0054177	0.0059156	-0.0864488	
-0.0039492	0.0065903	-0.084738	
-0.0187039	0.0038305	-0.0984489	
-0.019675	0.0025884	-0.0994902	
-0.0196048	0.0053989	-0.0990507	
-0.0192076	0.0070525	-0.0986651	
-0.0185081	0.009389	-0.0977264	
-0.0178866	0.0076725	-0.09746	
-0.0166942	0.0062095	-0.096576	
-0.019394	0.0006205	-0.0992275	
-0.0208094	-4.4e-06	-0.100394	
-0.021593	-0.0027796	-0.100937	
-0.0222554	0.000368	-0.10159	
-0.0242685	0.0016007	-0.103385	
-0.0226692	0.0023173	-0.102094	
-0.025534	-0.00092	-0.104449	
-0.0217665	0.0037017	-0.101272	
-0.0257915	-0.0038619	-0.104588	
-0.0185453	-0.0006894	-0.0984381	
-0.0186107	-0.0025367	-0.0982689	
-0.018742	-0.0042201	-0.0983407	
-0.0170302	-0.0057514	-0.096783	
-0.0189761	-0.0064246	-0.0984818	
-0.0153718	-0.0042028	-0.0954935	
-0.019858	-0.0080072	-0.0992148	
-0.0203178	-0.0103991	-0.099488	
-0.0210068	-0.0068575	-0.100344	
-0.0224439	-0.0073467	-0.101632	
-0.0242022	-0.0074128	-0.103184	
-0.025803	-0.0083732	-0.104344	
-0.0266721	-0.0120093	-0.105075	
-0.0288159	-0.0092924	-0.106522	
-0.0323269	-0.0092477	-0.10759	
-0.0214602	-0.004738	-0.100838	
-0.0338532	-0.012731	-0.107501	
-0.0317489	-0.0159334	-0.107347	
-0.0373285	-0.0146308	-0.107485	
-0.0394897	-0.0183813	-0.107367	
-0.0247704	-0.0054701	-0.103779	
-0.0242237	-0.0037737	-0.103369	
-0.019901	-0.0029508	-0.0993699	
-0.0369587	-0.0215852	-0.10745	
-0.0298048	-0.0061604	-0.107054	
-0.0308305	-0.0028599	-0.107431	
-0.0303089	0.0013947	-0.107257	
-0.0343205	-0.0023526	-0.107632	
-0.0335775	0.0007941	-0.107639	
-0.0363464	-0.0049952	-0.107566	
-0.0381891	-0.0075107	-0.107464	
-0.0183857	-0.0105948	-0.0978543	
-0.0177089	-0.0121786	-0.0970579	
-0.0188465	-0.0144931	-0.0975	
-0.0208652	-0.0148352	-0.0993944	
-0.0232503	-0.0156444	-0.101536	
-0.0177003	-0.0162609	-0.0957804	
-0.0216194	-0.0176614	-0.0996991	
-0.0235847	-0.0186343	-0.101655	
-0.0228458	-0.0094466	-0.101785	
-0.0218095	-0.0106981	-0.100835	
-0.0209201	-0.0120306	-0.0998143	
-0.0235258	-0.0110847	-0.102192	
-0.0243302	-0.0135746	-0.102723	
-0.0250842	-0.0114725	-0.103665	
-0.035347	-0.0082381	-0.107574	
-0.0171811	-0.0094877	-0.096796	
-0.0168337	-0.0077324	-0.0964767	
-0.0175275	-0.0016346	-0.0975107	
-0.0161634	-0.0023626	-0.0962002	
-0.0274908	0.0005483	-0.106019	
-0.0282249	-0.0151539	-0.105936	
-0.016258	-0.0118969	-0.0957236	
-0.0155462	-0.0131353	-0.0946866	
-0.0261477	-0.0102879	-0.104619	
-0.0276311	-0.01067	-0.105778	
-0.0282966	-0.0122802	-0.10622	
-0.0292959	-0.0109609	-0.106791	
-0.0305802	-0.0095164	-0.107244	
-0.0311538	-0.0076824	-0.1074	
-0.0314437	-0.0110421	-0.107409	
-0.0319554	-0.0130464	-0.107359	
-0.0305448	-0.0142135	-0.107034	
-0.0332762	-0.0145589	-0.107482	
-0.0353646	-0.0143047	-0.107509	
-0.0335477	-0.0166222	-0.107572	
-0.0315969	-0.0191698	-0.10731	
-0.0335706	-0.010753	-0.107548	
-0.0366934	-0.0128077	-0.107478	
-0.0398316	-0.012313	-0.107383	
-0.0353874	-0.0114383	-0.107501	
-0.0359986	-0.0162367	-0.107549	
-0.0370326	-0.017863	-0.107476	
-0.0390877	-0.0161591	-0.107395	
-0.0410312	-0.0166932	-0.107439	
-0.0444009	-0.0174432	-0.107834	
-0.0419906	-0.0191656	-0.107447	
-0.0409318	-0.0221827	-0.107287	
-0.0469166	-0.0197998	-0.108058	
-0.0460875	-0.0233485	-0.1079	
-0.048475	-0.0263546	-0.107748	
-0.0364469	-0.019673	-0.107495	
-0.0340624	-0.0212478	-0.107553	
-0.0383654	-0.0203371	-0.107369	
-0.0297847	-0.016201	-0.106747	
-0.0285035	-0.017316	-0.105946	
-0.0262647	-0.0186979	-0.104325	
-0.0389057	-0.0221143	-0.107336	
-0.0373618	-0.0244003	-0.107409	
-0.0375014	-0.0278912	-0.107375	
-0.0330564	-0.0075089	-0.107648	
-0.049998	-0.0215805	-0.107731	
-0.0535035	-0.0202566	-0.106954	
-0.0541722	-0.0156971	-0.10704	
-0.0463643	-0.029895	-0.107915	
-0.0271675	-0.0090455	-0.105471	
-0.028185	-0.0075119	-0.10619	
-0.0283988	-0.0057501	-0.106353	
-0.0293892	-0.0040744	-0.106988	
-0.0270663	-0.0047346	-0.105522	
-0.0346736	-0.0067574	-0.107598	
-0.0364144	-0.0068025	-0.107534	
-0.0379741	-0.005815	-0.107474	
-0.0378693	-0.0041443	-0.107496	
-0.0397783	-0.0020217	-0.107415	
-0.0364106	-0.0030188	-0.107566	
-0.042263	-0.0035059	-0.107421	
-0.0427656	-0.0064838	-0.107503	
-0.0462486	-0.0081505	-0.107781	
-0.0444323	-0.0015877	-0.107703	
-0.0444913	0.0013863	-0.10781	
-0.0487559	0.0027821	-0.107999	
-0.0418267	0.0029045	-0.10744	
-0.0470255	-6.99e-05	-0.108072	
-0.0397521	-0.0064925	-0.107423	
-0.0406011	-0.0089468	-0.107423	
-0.0410853	-0.0056834	-0.107413	
-0.0413542	-0.0074694	-0.10744	
-0.0393509	0.0013869	-0.107382	
-0.0365243	0.0029138	-0.107479	
-0.0361286	0.0062058	-0.107518	
-0.0334251	0.0078851	-0.107565	
-0.0387206	0.0080102	-0.1074	
-0.0392176	0.0110574	-0.107275	
-0.0386039	0.0146911	-0.107273	
-0.0420752	0.0059013	-0.107531	
-0.0447033	0.0073166	-0.1079	
-0.0451662	0.0105629	-0.108014	
-0.048841	0.0142506	-0.108466	
-0.0474576	0.0058326	-0.108214	
-0.0513802	0.0071348	-0.108018	
-0.0548227	0.0082907	-0.107034	
-0.0571744	0.011965	-0.105348	
-0.0554888	0.0166132	-0.106604	
-0.0577969	0.0057015	-0.105536	
-0.0267812	-0.0209161	-0.104711	
-0.0288466	-0.0218566	-0.106203	
-0.0298124	-0.0182513	-0.106663	
-0.0301216	-0.0198651	-0.106768	
-0.0380301	-0.0023265	-0.107486	
-0.0387088	-0.0006118	-0.107459	
-0.0296453	-0.0240964	-0.106591	
-0.0288193	-0.0274931	-0.105746	
-0.03219	-0.0248817	-0.107322	
-0.0329695	-0.0275726	-0.107399	
-0.0351023	-0.030096	-0.106843	
-0.0379039	-0.0310772	-0.106167	
-0.0397688	-0.032324	-0.103938	
-0.0430717	-0.0328271	-0.10531	
-0.0347407	-0.0051086	-0.107594	
-0.0333552	-0.0038183	-0.107618	
-0.0318249	-0.0044343	-0.107531	
-0.0324654	-0.0022696	-0.10758	
-0.0312284	-0.0004876	-0.10748	
-0.0335796	-0.0009507	-0.107627	
-0.0350319	0.0001013	-0.107625	
-0.0348964	0.0019239	-0.107595	
-0.0356121	-0.0015072	-0.107613	
-0.0333701	0.0025556	-0.107619	
-0.0310313	0.0038974	-0.107391	
-0.0285653	0.0034678	-0.106564	
-0.0290545	-4.5e-05	-0.106826	
-0.0473471	-0.016455	-0.107976	
-0.0508338	-0.0143033	-0.107574	
-0.0534657	-0.0123894	-0.107062	
-0.0560237	-0.009164	-0.105875	
-0.0537285	-0.005268	-0.106496	
-0.053513	-0.0013767	-0.106878	
-0.0565761	0.0009357	-0.106113	
-0.0497633	-0.0058944	-0.107661	
-0.0372287	0.0177887	-0.107257	
-0.0368307	0.0207585	-0.107231	
-0.03959	0.023715	-0.107189	
-0.0397302	0.0277942	-0.106079	
-0.0410494	0.0167474	-0.107221	
-0.0434831	0.0195496	-0.107355	
-0.0461624	0.0227189	-0.107774	
-0.0442718	0.0162061	-0.107635	
-0.0320095	0.0058512	-0.10755	
-0.0304079	0.0085679	-0.10723	
-0.0278171	0.0097146	-0.106141	
-0.027925	0.0126649	-0.106108	
-0.0300582	0.0145414	-0.107109	
-0.0323217	0.0163409	-0.107539	
-0.0330154	0.0135433	-0.107541	
-0.0360379	0.0124555	-0.107354	
-0.0333569	0.0106637	-0.107454	
-0.0296011	-0.0077813	-0.106874	
-0.031902	0.0014244	-0.107538	
-0.0272519	-0.0137241	-0.105422	
-0.0258432	-0.0135615	-0.10426	
-0.0266918	-0.0152816	-0.104836	
-0.0267099	-0.0169799	-0.104735	
-0.0261614	-0.0229987	-0.103939	
-0.026316	-0.0253438	-0.10369	
-0.0253556	-0.0272183	-0.102202	
-0.0426408	-0.0244531	-0.107464	
-0.041718	-0.0274207	-0.1074	
-0.0431511	-0.0300089	-0.107269	
-0.0048032	-0.0070351	-0.0859633	
-0.0031808	-0.0076758	-0.0840119	
-0.0014432	-0.0056643	-0.0834368	
-0.0158085	0.0218664	-0.0892212	
-0.0171184	0.0222558	-0.0906823	
-0.0177291	0.0218593	-0.0921279	
-0.0191278	0.0224589	-0.0940459	
-0.0175474	0.020414	-0.093233	
-0.0164668	0.0190949	-0.092709	
-0.0165214	0.0175546	-0.0935419	
-0.0186703	0.0203689	-0.0948808	
-0.0189343	0.0189211	-0.0957491	
-0.0200102	0.0199134	-0.0967936	
-0.0209068	0.0217314	-0.0973853	
-0.0207641	0.0189559	-0.0981435	
-0.020822	0.0172209	-0.0986202	
-0.018592	0.0171234	-0.0961129	
-0.0195672	0.0164711	-0.0974337	
-0.0184899	0.0153115	-0.0966467	
-0.0186547	0.0137588	-0.0973075	
-0.0197486	0.0133099	-0.0984283	
-0.0206473	0.0121404	-0.0996077	
-0.0206612	0.0143869	-0.0991626	
-0.0214266	0.0158323	-0.0996269	
-0.0226592	0.0158555	-0.100861	
-0.0204406	0.0104986	-0.0995452	
-0.0232395	0.0143111	-0.101618	
-0.022429	0.0126681	-0.101202	
-0.0231776	0.0110142	-0.102055	
-0.0233586	0.0173698	-0.101309	
-0.0244441	0.014461	-0.102846	
-0.0251712	0.0129452	-0.103745	
-0.0213916	0.0095073	-0.100572	
-0.0214772	0.0077032	-0.100692	
-0.0182834	0.0120868	-0.097343	
-0.0169952	0.0108957	-0.0961641	
-0.0251657	0.0159367	-0.103446	
-0.0260723	0.0174084	-0.104225	
-0.0277029	0.0160372	-0.105802	
-0.0276882	0.0185073	-0.105745	
-0.02661	0.0130113	-0.105081	
-0.0274201	0.0143495	-0.105659	
-0.0246363	0.0172594	-0.102724	
-0.0241584	0.0186362	-0.101983	
-0.0248385	0.0201475	-0.102494	
-0.0261424	0.0200744	-0.103636	
-0.024225	0.0212878	-0.101432	
-0.0264432	0.0217462	-0.103926	
-0.0247274	0.0227866	-0.101765	
-0.0258435	0.0236322	-0.102746	
-0.0263202	0.0254938	-0.102576	
-0.0255037	0.0268579	-0.10016	
-0.0275788	0.0262519	-0.103665	
-0.0290669	0.0276731	-0.103373	
-0.0302676	0.0288197	-0.100694	
-0.0276126	0.0220287	-0.105292	
-0.0266308	0.0189021	-0.104679	
-0.0174823	0.014283	-0.0959227	
-0.0162996	0.0134099	-0.094936	
-0.0165878	0.0149118	-0.0946955	
-0.0158833	0.0160133	-0.0934359	
-0.0146996	0.0153613	-0.0923123	
-0.0205545	0.0228924	-0.0963433	
-0.0215453	0.0246108	-0.0966295	
-0.0228679	0.0258913	-0.0969259	
-0.0242866	0.0279164	-0.0961967	
-0.0240038	0.0263115	-0.0986057	
-0.0258694	0.0278534	-0.0981758	
-0.0216918	0.0232934	-0.0977572	
-0.0239868	0.0247718	-0.0998363	
-0.0223055	0.0064669	-0.101626	
-0.0237541	0.0065716	-0.103006	
-0.0247243	0.0051809	-0.103863	
-0.0267402	0.0056382	-0.105466	
-0.024383	0.0084688	-0.103434	
-0.025814	0.0089717	-0.104671	
-0.0244926	0.0115539	-0.103182	
-0.0286783	0.0213792	-0.106293	
-0.0302203	0.0216109	-0.107099	
-0.0316411	0.0202215	-0.107438	
-0.0326988	0.0186245	-0.107562	
-0.0353186	0.0183504	-0.107377	
-0.0302851	0.0232916	-0.107032	
-0.0321511	0.0246271	-0.107261	
-0.0324582	0.0277094	-0.105775	
-0.0292294	0.0248121	-0.106183	
-0.0308473	0.0264135	-0.106474	
-0.0341386	0.0230283	-0.107369	
-0.0366942	0.0237579	-0.107318	
-0.0372931	0.0266338	-0.106889	
-0.0281151	0.0199199	-0.105964	
-0.0289022	0.0188063	-0.106592	
-0.0305255	0.0189802	-0.107275	
-0.0340807	0.0288246	-0.103575	
-0.035206	0.0289145	-0.10064	
-0.0279552	0.0251017	-0.104946	
-0.0269078	0.0074605	-0.105619	
-0.0244192	0.0280579	-0.0943308	
-0.0264977	0.0282309	-0.0925505	
-0.0287196	0.0288128	-0.0939045	
-0.0315479	0.0291192	-0.095758	
-0.0354037	0.0292681	-0.0957367	
-0.028124	0.0289526	-0.0964588	
-0.0303793	0.0291364	-0.0975519	
-0.0384715	0.0293949	-0.094841	
-0.0407338	0.0289139	-0.0921453	
-0.0393808	0.0274737	-0.0892588	
-0.0359619	0.0279367	-0.0885997	
-0.0337456	0.0289433	-0.0912747	
-0.0313832	0.0274931	-0.0890596	
-0.0300945	0.0256205	-0.086213	
-0.0379696	0.0290144	-0.100712	
-0.0396333	0.0290174	-0.103182	
-0.041955	0.0288718	-0.104601	
-0.0438917	0.0281794	-0.106551	
-0.045488	0.0258955	-0.107629	
-0.0463952	0.029079	-0.105987	
-0.0491526	0.0292131	-0.105847	
-0.0505403	0.026943	-0.106938	
-0.0494335	0.0237953	-0.107444	
-0.0530088	0.0245981	-0.106394	
-0.0555289	0.0225591	-0.105602	
-0.0469938	0.0298685	-0.103692	
-0.0452411	0.0297452	-0.100804	
-0.0476543	0.0298727	-0.101259	
-0.0501237	0.0300563	-0.100467	
-0.0552902	0.0196927	-0.106234	
-0.0526799	0.0181238	-0.107432	
-0.0500888	0.0198255	-0.107437	
-0.0501596	0.0168963	-0.10802	
-0.0524746	0.0150479	-0.107944	
-0.0426744	0.0293973	-0.102204	
-0.0438261	0.029705	-0.0982257	
-0.045128	0.0292573	-0.095603	
-0.0060554	0.0297224	-0.0118148	
-0.0068109	0.0285138	-0.0114092	
-0.007337	0.0273952	-0.0119166	
-0.0073231	0.0265237	-0.0130903	
-0.0066853	0.0270641	-0.0141624	
0.0279338	-0.0266033	-0.0448781	
0.0212837	0.0235483	-0.0709149	
0.0230063	0.0234044	-0.0716331	
0.0430237	0.0031654	0.0621261	
-0.0163807	-0.0245077	-0.0382621	
0.0496614	0.0531434	-0.0271305	
0.0474594	0.0544909	-0.0260511	
0.0411101	0.0251965	-0.0693784	
0.0424032	0.0250793	-0.0703745	
-0.0019074	0.0223809	-0.069403	
-0.0239156	-0.0262208	-0.0521393	
-0.0240329	0.0235611	-0.100713	
-0.023209	0.0237193	-0.0994971	
-0.0224261	0.022832	-0.09908	
-0.0224965	0.0215461	-0.0996401	
-0.0225696	0.020041	-0.100103	
-0.0217644	0.0189496	-0.0993644	
-0.0227666	0.0185785	-0.100598	
-0.0217253	0.0217827	-0.0984498	
-0.0233511	0.0210688	-0.100638	
0.0111344	0.0246749	-0.0648267	
0.0056889	0.0072783	-0.0891536	
0.0054169	0.0093918	-0.0874466	
0.0387132	-0.0508065	-0.0400888	
0.0361779	-0.0494762	-0.0412121	
0.0411107	-0.0513707	-0.0385212	
0.0611371	-0.006454	0.0767371	
0.10017	-0.0001721	-0.0587898	
0.102472	-0.001495	-0.0600191	
0.103134	-0.0041947	-0.0609924	
0.104849	-0.0052567	-0.063276	
0.10114	-0.0061578	-0.0605608	
0.0994407	-0.0083604	-0.060776	
0.104473	-0.0081486	-0.0634655	
0.0987544	-0.0056792	-0.0594425	
0.103159	-0.0106038	-0.063345	
0.101574	-0.0131614	-0.0641351	
0.100576	-0.0107108	-0.0621787	
0.104787	-0.0091761	-0.0661899	
0.104637	-0.0076444	-0.0682987	
0.104386	-0.0109584	-0.0685353	
0.105025	-0.0050533	-0.0679392	
0.0972766	-0.0100563	-0.0606854	
0.0942588	-0.0093172	-0.0596725	
0.0957352	-0.0117283	-0.0611176	
0.0963461	-0.0138057	-0.0627049	
0.0971353	-0.0156322	-0.0647337	
0.0950155	-0.0176352	-0.0663077	
0.0941513	-0.0064458	-0.0584569	
0.092191	-0.0174046	-0.0649208	
0.0989003	-0.0137844	-0.0636806	
0.0917983	-0.0156969	-0.0628346	
0.0891227	-0.0174261	-0.0634077	
0.0871344	-0.0180239	-0.0608943	
0.0939415	-0.0139709	-0.0620105	
0.0914189	-0.0139207	-0.0608813	
0.0906121	-0.0120758	-0.0584063	
0.0981272	-0.0170737	-0.0665349	
0.100974	-0.0170714	-0.0676174	
0.0895774	-0.0141067	-0.0590022	
0.0880993	-0.0160936	-0.0587705	
0.0881733	-0.0160168	-0.0564181	
0.0886711	-0.0154166	-0.0540142	
0.0897966	-0.0121748	-0.0527439	
0.0891487	-0.0153075	-0.0512035	
0.0908601	-0.0085424	-0.0517495	
0.0877815	-0.0179468	-0.0548909	
0.0868772	-0.019727	-0.0560024	
0.085621	-0.0220384	-0.0562516	
0.0831576	-0.0238736	-0.0583324	
0.0864341	-0.0199661	-0.0586843	
0.0811281	-0.0252128	-0.0556391	
0.0852997	-0.0221126	-0.058435	
0.0840456	-0.0231302	-0.0604509	
0.0845121	-0.0221235	-0.0633669	
0.0886804	-0.0178696	-0.0500349	
0.0888511	-0.0189177	-0.046978	
0.0871222	-0.0205284	-0.0441444	
0.0893526	-0.0163061	-0.0449111	
0.0874401	-0.0144064	-0.0429386	
0.0865456	-0.014779	-0.0388809	
0.0823741	-0.0241025	-0.0602308	
0.0814829	-0.0244989	-0.0623757	
0.0787531	-0.025304	-0.0622757	
0.0770036	-0.0253376	-0.0593832	
0.0736752	-0.0252506	-0.0568426	
0.076098	-0.0253296	-0.0621078	
0.0798254	-0.0250242	-0.0642317	
0.0791136	-0.0249813	-0.066727	
0.0760965	-0.0253459	-0.0669258	
0.0748297	-0.0253524	-0.0648252	
0.0738953	-0.0254103	-0.0677994	
0.0725733	-0.0254515	-0.0702423	
0.0829476	-0.0235402	-0.0620094	
0.0810993	-0.0242884	-0.0664423	
0.0829246	-0.0232405	-0.0666226	
0.0853983	-0.0216512	-0.0663547	
0.0870139	-0.0216694	-0.068547	
0.0865708	-0.0228731	-0.0720401	
0.0822838	-0.0236137	-0.0688399	
0.0814517	-0.024303	-0.0721551	
0.0839738	-0.0234095	-0.071195	
0.0816111	-0.0246539	-0.0585525	
0.0791445	-0.0251729	-0.0581614	
0.0770851	-0.0252292	-0.0566274	
0.0824349	-0.0245042	-0.0568145	
0.0826425	-0.0250064	-0.0547984	
0.0808751	-0.0258471	-0.05304	
0.0839972	-0.0248329	-0.0527907	
0.0855374	-0.023245	-0.0530862	
0.0868527	-0.0217527	-0.0519	
0.0846509	-0.0253082	-0.05071	
0.0833255	-0.0272249	-0.0494657	
0.0812755	-0.0281965	-0.0502027	
0.0805711	-0.0304698	-0.0490771	
0.0816766	-0.0319628	-0.0458516	
0.0792276	-0.0348103	-0.0457139	
0.0872016	-0.0220427	-0.0494991	
0.0862524	-0.0242215	-0.0485793	
0.0864233	-0.0243014	-0.0462246	
0.0853894	-0.0260425	-0.0449164	
0.0840691	-0.0258887	-0.0428191	
0.0842476	-0.0281693	-0.0461789	
0.082489	-0.0277712	-0.041536	
0.082178	-0.0302939	-0.0424019	
0.0814087	-0.0271366	-0.0385447	
0.081778	-0.0300419	-0.0366654	
0.0840982	-0.025188	-0.0368119	
0.0876207	-0.0262529	-0.0352064	
0.0784917	-0.03068	-0.0501083	
0.0757117	-0.0290044	-0.0510535	
0.0771139	-0.0326148	-0.0496714	
0.077829	-0.0343385	-0.0481821	
0.075638	-0.0343329	-0.0493556	
0.0740117	-0.0359772	-0.0488729	
0.0717163	-0.0377722	-0.0484174	
0.0746339	-0.0377121	-0.0473492	
0.0766862	-0.0372327	-0.0457929	
0.0751886	-0.0388044	-0.0453544	
0.074198	-0.0398928	-0.0422643	
0.0753054	-0.0367013	-0.0397689	
0.0737247	-0.0403084	-0.0442382	
0.0717068	-0.0410662	-0.045893	
0.0694783	-0.0427259	-0.0451394	
0.0668268	-0.0425233	-0.0465553	
0.0870898	-0.0223314	-0.0448874	
0.0830167	-0.0300717	-0.0456331	
0.0878622	-0.0208621	-0.0486831	
0.0841681	-0.0311515	-0.035061	
0.0872066	-0.029693	-0.0341213	
0.0884721	-0.031181	-0.0310597	
0.0865883	-0.03395	-0.0290614	
0.0895853	-0.0282526	-0.0285278	
0.08723	-0.0261902	-0.0260815	
0.0817376	-0.0327279	-0.035238	
0.0848819	-0.0324072	-0.0255293	
0.0811105	-0.0312689	-0.0240735	
0.0842202	-0.0243197	-0.0252666	
0.080904	-0.022108	-0.0276279	
0.0805559	-0.0357622	-0.0238533	
0.0806968	-0.0268041	-0.0256672	
0.0769656	-0.0286178	-0.0263347	
0.0744864	-0.027051	-0.0290263	
0.0707028	-0.0246992	-0.0291546	
0.0671377	-0.0275246	-0.0294813	
0.0740468	-0.0311031	-0.0267951	
0.074845	-0.0235293	-0.030117	
0.0759961	-0.0203552	-0.0307009	
0.0744075	-0.0166704	-0.0304618	
0.0770981	-0.0134219	-0.0313572	
0.0814834	-0.0144244	-0.0304206	
0.0841262	-0.0104821	-0.0294081	
0.0757711	-0.0096298	-0.0307519	
0.0822946	-0.0177732	-0.0287633	
0.0781993	-0.0065427	-0.0315914	
0.0759695	-0.0032293	-0.0306749	
0.0824876	-0.0060078	-0.0317138	
0.0765782	0.0006834	-0.0309646	
0.0741842	0.0033072	-0.0301727	
0.0705315	0.0028841	-0.0290593	
0.0691157	-0.000707	-0.0283649	
0.0846127	-0.0238005	-0.0736556	
0.0874025	-0.0237519	-0.0748557	
0.085878	-0.024495	-0.0770233	
0.0840138	-0.0237526	-0.0418109	
0.0829594	-0.0230105	-0.0390893	
0.0857473	-0.0215539	-0.0368744	
0.0853288	-0.0219325	-0.0428238	
0.0855786	-0.0196712	-0.0421956	
0.0850163	-0.018114	-0.0393622	
0.080265	-0.031785	-0.0413564	
0.080885	-0.0329504	-0.0435732	
0.0791586	-0.0313882	-0.0385776	
0.0776551	-0.0335481	-0.0394274	
0.0765108	-0.0344755	-0.0363563	
0.0773039	-0.035572	-0.0410091	
0.078546	-0.0358499	-0.0433249	
0.0733921	-0.0337077	-0.0499089	
0.0728672	-0.031927	-0.0503972	
0.0715795	-0.0298952	-0.0506109	
0.0735019	-0.0284216	-0.0511076	
0.0732434	-0.0256674	-0.0531669	
0.0751428	-0.0266269	-0.0517827	
0.0775475	-0.0272183	-0.0517564	
0.0742194	-0.0304558	-0.0508693	
0.0696984	-0.028757	-0.0503678	
0.0678274	-0.0276412	-0.0502171	
0.0640378	-0.0269592	-0.0505892	
0.0653859	-0.0293753	-0.049712	
0.0606359	-0.026515	-0.0514057	
0.0659782	-0.0320132	-0.0493228	
0.0693321	-0.0266771	-0.0513225	
0.0704949	-0.0257923	-0.0529688	
0.0686849	-0.0255467	-0.0538297	
0.0670047	-0.025477	-0.0568003	
0.0662629	-0.0255437	-0.054153	
0.0646842	-0.0254859	-0.0559822	
0.0613692	-0.025626	-0.0566527	
0.0839727	-0.0235636	-0.0566494	
0.0890516	-0.0205679	-0.0676422	
0.0903442	-0.0188207	-0.0658231	
0.0875238	-0.0200383	-0.0523035	
0.0738388	-0.0335768	-0.0245886	
0.0733702	-0.0382342	-0.0221548	
0.0763814	-0.0358569	-0.0228224	
0.0708546	-0.0323213	-0.0277765	
0.08433	-0.0372188	-0.0308276	
0.0826364	-0.0398698	-0.0282658	
0.080026	-0.0422783	-0.0264998	
0.0769862	-0.043989	-0.0239331	
0.0745127	-0.0474254	-0.0243472	
0.0702633	-0.0491806	-0.0219472	
0.0904349	-0.0248934	-0.0338424	
0.0911766	-0.0259743	-0.0308902	
0.075297	-0.0254659	-0.0540963	
0.0901904	-0.013699	-0.0493626	
0.0904726	-0.0141798	-0.047279	
0.0909043	-0.0117843	-0.0470551	
0.0899649	-0.0099379	-0.0447137	
0.0915445	-0.009357	-0.0475847	
0.0916132	-0.0070109	-0.045976	
0.0435356	0.0555934	-0.0141725	
0.0460485	0.0547393	-0.014936	
-0.0154282	-0.0264244	-0.0580917	
-0.0176859	-0.0263399	-0.0562673	
-0.0209746	-0.0260718	-0.055323	
-0.0216869	-0.0258757	-0.0587609	
-0.0247881	-0.0249257	-0.0592112	
-0.0274084	-0.0243273	-0.05716	
-0.0261156	-0.0238437	-0.0619804	
-0.0284821	-0.0219186	-0.06303	
-0.0249886	-0.0248818	-0.0645592	
-0.0303543	-0.0207733	-0.0608459	
-0.0303696	-0.0218271	-0.0576403	
-0.0321028	-0.0186329	-0.0554313	
-0.0316387	-0.0198724	-0.0513527	
-0.0359229	-0.021143	-0.0494392	
-0.0346455	-0.016346	-0.0560193	
-0.0351838	-0.0130496	-0.0598056	
-0.0290112	-0.0205822	-0.0657428	
-0.0305339	-0.0174694	-0.0668322	
-0.0309874	-0.0150884	-0.0695627	
-0.0282116	-0.0217461	-0.0682121	
-0.0306114	-0.0149082	-0.072805	
-0.029979	-0.0122463	-0.0745466	
-0.0314066	-0.0091948	-0.0732066	
-0.029766	-0.0142508	-0.0772812	
-0.0305909	-0.0130587	-0.0804384	
-0.0308364	-0.009509	-0.0809683	
-0.030936	-0.0117645	-0.0679973	
-0.0317966	-0.0065471	-0.0707825	
-0.0311147	-0.0167436	-0.0784101	
-0.0319317	-0.0100189	-0.0658204	
-0.0312566	-0.0078076	-0.0781039	
-0.0338098	-0.0079119	-0.0653637	
-0.0345104	-0.0052108	-0.0673416	
-0.0364766	-0.0073276	-0.0646569	
-0.0377233	-0.0086081	-0.0625821	
-0.0401083	-0.0109965	-0.0609732	
-0.0368505	-0.0108815	-0.0610183	
-0.0383163	-0.0131584	-0.0592375	
-0.0409528	-0.0143176	-0.0595411	
-0.0426954	-0.0176426	-0.0579504	
-0.0396457	-0.0192144	-0.0548352	
-0.0460428	-0.0163538	-0.0606361	
-0.043483	-0.0206926	-0.0554094	
-0.047738	-0.0228739	-0.0544826	
-0.0455552	-0.0244283	-0.0498923	
-0.0491491	-0.0257864	-0.0464338	
-0.0540607	-0.0264716	-0.0479546	
-0.0556735	-0.0265937	-0.0529722	
-0.0518006	-0.0252366	-0.0563333	
-0.0418154	-0.0253546	-0.0471584	
-0.0402717	-0.0262538	-0.0424661	
-0.0341871	-0.0117468	-0.0621315	
-0.0327925	-0.0150036	-0.0615453	
-0.015668	-0.0264836	-0.0546726	
-0.0161467	-0.0270881	-0.0520527	
-0.0184201	-0.0270732	-0.0507916	
-0.0144953	-0.0286622	-0.0510868	
-0.0205293	-0.026357	-0.0522551	
-0.0323525	-0.0130619	-0.0832678	
-0.0349785	-0.0122885	-0.084812	
-0.0362404	-0.0096582	-0.0842172	
-0.0220843	-0.0262308	-0.0649052	
-0.0434884	-0.0154632	-0.0599868	
-0.0308943	-0.0093764	-0.069691	
-0.0313023	-0.0180338	-0.0611958	
-0.0313035	-0.0161827	-0.0637348	
-0.0347698	-0.0076795	-0.0830739	
-0.0355589	-0.005131	-0.0822588	
-0.0372013	-0.0023957	-0.0827291	
-0.0386653	0.0002258	-0.0838903	
-0.0431776	-0.0006898	-0.0827151	
-0.0414465	0.0022731	-0.0832426	
-0.0400504	0.0054132	-0.0829154	
-0.0434053	0.0047176	-0.081487	
-0.0382152	0.0084835	-0.0824813	
-0.0377642	0.0056206	-0.0806659	
-0.0400706	0.0106001	-0.0840107	
-0.0386712	-0.0087971	-0.0850059	
-0.0396816	-0.005885	-0.0851482	
-0.0428528	-0.004229	-0.0845612	
-0.0450187	-0.0058954	-0.082097	
-0.0457894	-0.0101154	-0.0819947	
-0.0412533	-0.008742	-0.0862308	
-0.0434367	-0.0107418	-0.0857619	
-0.0428971	-0.013596	-0.0870566	
-0.0449058	-0.017269	-0.0864736	
-0.0471014	-0.007585	-0.0801583	
-0.0429506	-0.009832	-0.0624116	
-0.0461862	-0.0115943	-0.0630973	
-0.0484884	-0.0143793	-0.0633971	
-0.0498204	-0.0158337	-0.066323	
-0.0363986	0.0110847	-0.081954	
0.0924002	-0.0039956	-0.0559978	
0.0916338	-0.0035334	-0.0534757	
0.0914898	-0.0055848	-0.0511589	
0.0922151	-0.0062133	-0.0566024	
0.092215	-0.0083924	-0.0577845	
0.09116	-0.0077069	-0.0551847	
0.0904692	-0.0095053	-0.0538971	
0.0899641	-0.0114406	-0.0550948	
0.0918224	-0.003195	-0.0512158	
0.0919412	-0.0102335	-0.0589017	
-0.0029612	0.0046354	-0.0846787	
-0.0025678	0.0019797	-0.0850653	
0.0080147	0.0219754	-0.0701296	
0.0157471	-0.0342764	-0.0499984	
0.0582969	0.0287305	-0.0485077	
-0.0221679	-0.0283781	-0.0940576	
-0.0241613	-0.0290192	-0.0914052	
-0.0471151	-0.0030875	-0.108036	
-0.0473729	-0.0053184	-0.107879	
0.0265949	0.0332461	-0.0395646	
0.0444569	0.0027841	-0.0318364	
0.0442851	-0.000702	-0.0314172	
0.0212394	0.0251533	-0.0578094	
0.0215933	0.0248784	-0.056047	
0.0207493	0.0247102	-0.054456	
0.0190089	0.024817	-0.054507	
0.0188534	0.0248088	-0.0526349	
0.0199025	0.0249201	-0.0508072	
0.0214468	0.0251593	-0.0497631	
0.0221388	0.0247717	-0.053458	
0.021874	0.0249108	-0.0517538	
0.0234716	0.0249918	-0.0523416	
0.0247939	0.0250789	-0.051333	
0.0262399	0.025266	-0.0502287	
0.0245071	0.0252599	-0.0497627	
0.0229474	0.0252413	-0.0493231	
0.0238592	0.0254245	-0.0480911	
0.0251459	0.0255334	-0.0469585	
0.0262482	0.0257478	-0.045678	
0.0275485	0.0262579	-0.0443801	
0.025668	0.0260954	-0.0441064	
0.0237166	0.0259828	-0.0435147	
0.0250428	0.0264782	-0.0424588	
